7447425.05236816,5477281.34609985,635.60644531,16.000000
7447426.13610840,5477282.30499268,635.88739014,49.000000
7447425.17602539,5477281.48110962,635.60241699,17.000000
7447426.22155762,5477282.33099365,635.97717285,38.000000
7447425.32348633,5477281.64068604,635.59967041,23.000000
7447426.27258301,5477282.31582642,636.07305908,39.000000
7447425.49291992,5477281.81936646,635.60296631,19.000000
7447426.37609863,5477282.35601807,636.16998291,53.000000
7447425.73535156,5477282.08358765,635.59582520,12.000000
7447426.44445801,5477282.35525513,636.27154541,42.000000
7447425.95886230,5477282.30508423,635.61962891,33.000000
7447426.53503418,5477282.37457275,636.37811279,68.000000
7447424.87011719,5477281.14715576,635.60644531,19.000000
7447426.02526855,5477282.31091309,635.70458984,35.000000
7447424.95874023,5477281.24401855,635.60302734,22.000000
7447426.08776855,5477282.31323242,635.79302979,38.000000
7447425.05737305,5477281.34899902,635.60308838,16.000000
7447426.14086914,5477282.30322266,635.88482666,46.000000
7447425.17602539,5477281.47592163,635.60217285,16.000000
7447426.22509766,5477282.32763672,635.97473145,41.000000
7447425.32592773,5477281.63842773,635.59808350,23.000000
7447426.27758789,5477282.31396484,636.07061768,38.000000
7447425.49450684,5477281.81527710,635.60168457,20.000000
7447426.38110352,5477282.35406494,636.16754150,45.000000
7447425.74316406,5477282.08694458,635.59197998,12.000000
7447426.45654297,5477282.36041260,636.26940918,40.000000
7447425.96948242,5477282.31118774,635.61499023,39.000000
7447426.52893066,5477282.36114502,636.37475586,51.000000
7447424.87170410,5477281.14562988,635.60534668,19.000000
7447426.03369141,5477282.31384277,635.70098877,37.000000
7447424.95471191,5477281.23287964,635.60626221,24.000000
7447426.08996582,5477282.30844116,635.79089355,40.000000
7447425.05834961,5477281.34561157,635.60241699,16.000000
7447426.15344238,5477282.31057739,635.88110352,48.000000
7447425.17187500,5477281.46444702,635.60449219,17.000000
7447426.21142578,5477282.30484009,635.97412109,34.000000
7447425.32165527,5477281.62677002,635.59985352,23.000000
7447426.29052734,5477282.32098389,636.06768799,39.000000
7447425.49951172,5477281.81591797,635.59887695,20.000000
7447426.40393066,5477282.37109375,636.16491699,46.000000
7447425.73339844,5477282.06689453,635.59478760,12.000000
7447426.45874023,5477282.35552979,636.26684570,37.000000
7447425.98498535,5477282.32348633,635.60888672,33.000000
7447426.53833008,5477282.36331177,636.37274170,42.000000
7447424.87512207,5477281.14736938,635.60278320,19.000000
7447426.04174805,5477282.31707764,635.69757080,35.000000
7447424.95434570,5477281.22824097,635.60668945,23.000000
7447426.09179688,5477282.30395508,635.78906250,39.000000
7447425.06115723,5477281.34552002,635.60058594,17.000000
7447426.15917969,5477282.31060791,635.87854004,48.000000
7447425.17590332,5477281.46578979,635.60192871,17.000000
7447426.23315430,5477282.32278442,635.97009277,40.000000
7447425.31396484,5477281.61059570,635.60345459,22.000000
7447426.29235840,5477282.31646729,636.06561279,35.000000
7447425.49731445,5477281.80740356,635.59924316,20.000000
7447426.42639160,5477282.38836670,636.16253662,57.000000
7447425.73022461,5477282.05648804,635.59515381,12.000000
7447426.45239258,5477282.34234619,636.26428223,32.000000
7447425.97961426,5477282.30969238,635.60949707,38.000000
7447426.55578613,5477282.37426758,636.37158203,58.000000
7447424.87390137,5477281.14111328,635.60406494,18.000000
7447426.04760742,5477282.31689453,635.69458008,37.000000
7447424.95605469,5477281.22656250,635.60546875,22.000000
7447426.09777832,5477282.30377197,635.78619385,38.000000
7447425.05273438,5477281.32794189,635.60607910,17.000000
7447426.16784668,5477282.31335449,635.87542725,48.000000
7447425.17797852,5477281.46377563,635.60052490,16.000000
7447426.23144531,5477282.31347656,635.96820068,39.000000
7447425.31738281,5477281.60995483,635.60131836,23.000000
7447426.29589844,5477282.31311035,636.06317139,36.000000
7447425.49536133,5477281.79864502,635.59948730,19.000000
7447426.43286133,5477282.38778687,636.16003418,56.000000
7447425.73095703,5477282.05053711,635.59399414,12.000000
7447426.47412109,5477282.35754395,636.26245117,37.000000
7447425.97216797,5477282.29254150,635.61065674,25.000000
7447426.57641602,5477282.38769531,636.37042236,66.000000
7447424.86804199,5477281.12701416,635.60931396,18.000000
7447426.05358887,5477282.31665039,635.69158936,35.000000
7447424.95581055,5477281.22174072,635.60577393,22.000000
7447426.10510254,5477282.30502319,635.78308105,40.000000
7447425.05468750,5477281.32611084,635.60479736,18.000000
7447426.16882324,5477282.30700684,635.87341309,48.000000
7447425.17480469,5477281.45391846,635.60217285,16.000000
7447426.24291992,5477282.31906128,635.96496582,40.000000
7447425.32312012,5477281.61239624,635.59802246,22.000000
7447426.30224609,5477282.31268311,636.06060791,36.000000
7447425.49011230,5477281.78518677,635.60125732,18.000000
7447426.43103027,5477282.37844849,636.15759277,50.000000
7447425.73400879,5477282.04763794,635.59197998,12.000000
7447426.49731445,5477282.37408447,636.26062012,25.000000
7447425.98291016,5477282.29858398,635.60601807,19.000000
7447426.63684082,5477282.44042969,636.37237549,55.000000
7447424.86962891,5477281.12548828,635.60821533,19.000000
7447426.05456543,5477282.31030273,635.68994141,35.000000
7447424.96154785,5477281.22634888,635.60162354,22.000000
7447426.11621094,5477282.31085205,635.77911377,41.000000
7447425.05554199,5477281.32272339,635.60418701,19.000000
7447426.17102051,5477282.30218506,635.87127686,46.000000
7447425.16943359,5477281.44091797,635.60516357,18.000000
7447426.25305176,5477282.32315063,635.96191406,38.000000
7447425.32214355,5477281.60546875,635.59814453,21.000000
7447426.31384277,5477282.31814575,636.05773926,38.000000
7447425.48693848,5477281.77490234,635.60205078,18.000000
7447426.42370605,5477282.36334229,636.15521240,44.000000
7447425.73229980,5477282.03857422,635.59173584,12.000000
7447426.51782227,5477282.38772583,636.25872803,40.000000
7447425.99841309,5477282.31076050,635.59979248,18.000000
7447426.65478516,5477282.45086670,636.37084961,48.000000
7447424.87329102,5477281.12692261,635.60540771,18.000000
7447426.06091309,5477282.30972290,635.68664551,34.000000
7447424.95556641,5477281.21194458,635.60626221,23.000000
7447426.12634277,5477282.31478882,635.77520752,38.000000
7447425.06494141,5477281.33169556,635.59790039,17.000000
7447426.18005371,5477282.30450439,635.86785889,46.000000
7447425.17492676,5477281.44342041,635.60168457,16.000000
7447426.24365234,5477282.30453491,635.96069336,38.000000
7447425.32019043,5477281.59674072,635.59863281,21.000000
7447426.32043457,5477282.31732178,636.05493164,36.000000
7447425.49218750,5477281.77526855,635.59906006,17.000000
7447426.42919922,5477282.36093140,636.15246582,39.000000
7447425.72265625,5477282.01834106,635.59442139,12.000000
7447426.52197266,5477282.38378906,636.25592041,47.000000
7447425.99975586,5477282.30404663,635.59802246,21.000000
7447426.64770508,5477282.43554688,636.36712646,48.000000
7447424.87683105,5477281.12850952,635.60272217,17.000000
7447426.07678223,5477282.32174683,635.68103027,34.000000
7447424.95532227,5477281.20715332,635.60656738,21.000000
7447426.12097168,5477282.30084229,635.77471924,37.000000
7447425.05859375,5477281.31732178,635.60211182,17.000000
7447426.19262695,5477282.31170654,635.86407471,45.000000
7447425.17492676,5477281.43829346,635.60156250,16.000000
7447426.25646973,5477282.31158447,635.95727539,36.000000
7447425.31481934,5477281.58358765,635.60107422,20.000000
7447426.32946777,5477282.31976318,636.05218506,36.000000
7447425.49133301,5477281.76809692,635.59887695,15.000000
7447426.46862793,5477282.39508057,636.14953613,52.000000
7447425.72082520,5477282.00927734,635.59423828,11.000000
7447426.52148438,5477282.37597656,636.25329590,37.000000
7447425.99951172,5477282.29617310,635.59692383,19.000000
7447426.63305664,5477282.41366577,636.36315918,25.000000
7447424.87438965,5477281.12084961,635.60498047,18.000000
7447426.07995605,5477282.31872559,635.67889404,33.000000
7447424.95983887,5477281.21032715,635.60327148,21.000000
7447426.13049316,5477282.30541992,635.77124023,39.000000
7447425.05407715,5477281.30627441,635.60510254,16.000000
7447426.20361328,5477282.31765747,635.86065674,41.000000
7447425.17895508,5477281.43957520,635.59899902,15.000000
7447426.27038574,5477282.32037354,635.95397949,40.000000
7447425.30798340,5477281.56912231,635.60424805,19.000000
7447426.33264160,5477282.31665039,636.05004883,40.000000
7447425.48901367,5477281.75961304,635.59930420,13.000000
7447426.48034668,5477282.40051270,636.14709473,54.000000
7447425.72229004,5477282.00515747,635.59283447,12.000000
7447426.53747559,5477282.38555908,636.25140381,37.000000
7447425.99890137,5477282.28860474,635.59600830,18.000000
7447426.59802246,5477282.37255859,636.35797119,22.000000
7447424.87219238,5477281.11309814,635.60711670,17.000000
7447426.08215332,5477282.31387329,635.67694092,38.000000
7447424.96264648,5477281.21020508,635.60131836,22.000000
7447426.13903809,5477282.30810547,635.76782227,39.000000
7447425.05590820,5477281.30447388,635.60382080,17.000000
7447426.20190430,5477282.30828857,635.85913086,41.000000
7447425.18103027,5477281.43756104,635.59759521,14.000000
7447426.27258301,5477282.31549072,635.95172119,38.000000
7447425.31359863,5477281.57156372,635.60095215,21.000000
7447426.33898926,5477282.31616211,636.04742432,38.000000
7447425.48583984,5477281.74938965,635.60015869,12.000000
7447426.46875000,5477282.38107300,636.14483643,45.000000
7447425.71813965,5477281.99304199,635.59356689,12.000000
7447426.55517578,5477282.39617920,636.24926758,47.000000
7447425.99865723,5477282.28073120,635.59484863,15.000000
7447426.59167480,5477282.35919189,636.35473633,27.000000
7447424.86999512,5477281.10525513,635.60913086,17.000000
7447426.08435059,5477282.30892944,635.67468262,35.000000
7447424.96240234,5477281.20538330,635.60156250,22.000000
7447426.15148926,5477282.31527710,635.76336670,41.000000
7447425.05468750,5477281.29791260,635.60455322,15.000000
7447426.20275879,5477282.30187988,635.85699463,41.000000
7447425.17224121,5477281.41992188,635.60241699,14.000000
7447426.28405762,5477282.32092285,635.94824219,38.000000
7447425.32043457,5477281.57550049,635.59698486,20.000000
7447426.34655762,5477282.31707764,636.04461670,42.000000
7447425.48376465,5477281.74066162,635.60034180,13.000000
7447426.45446777,5477282.35873413,636.14245605,30.000000
7447425.72351074,5477281.99322510,635.59051514,12.000000
7447426.58996582,5477282.42379761,636.24743652,46.000000
7447426.00573730,5477282.28198242,635.59118652,13.000000
7447426.59973145,5477282.35980225,636.35235596,36.000000
7447424.87341309,5477281.10684204,635.60644531,16.000000
7447426.09277344,5477282.31167603,635.67102051,37.000000
7447424.96008301,5477281.19747925,635.60339355,22.000000
7447426.15747070,5477282.31494141,635.76049805,40.000000
7447425.06079102,5477281.30233765,635.60046387,15.000000
7447426.21411133,5477282.30746460,635.85333252,43.000000
7447425.17541504,5477281.41946411,635.60034180,16.000000
7447426.28222656,5477282.31158447,635.94647217,41.000000
7447425.31372070,5477281.56088257,635.60003662,21.000000
7447426.36242676,5477282.32675171,636.04138184,40.000000
7447425.48986816,5477281.74279785,635.59704590,13.000000
7447426.47473145,5477282.37246704,636.13970947,57.000000
7447425.70617676,5477281.96420288,635.59631348,11.000000
7447426.59790039,5477282.42437744,636.24499512,40.000000
7447426.00537109,5477282.27410889,635.59008789,13.000000
7447426.60766602,5477282.36038208,636.35009766,41.000000
7447424.87500000,5477281.10528564,635.60534668,19.000000
7447426.10131836,5477282.31436157,635.66735840,35.000000
7447424.96179199,5477281.19577026,635.60223389,22.000000
7447426.15454102,5477282.30398560,635.75946045,43.000000
7447425.06054688,5477281.29736328,635.60058594,14.000000
7447426.22424316,5477282.31146240,635.84991455,45.000000
7447425.17639160,5477281.41589355,635.59960938,15.000000
7447426.28710938,5477282.30960083,635.94390869,36.000000
7447425.30700684,5477281.54623413,635.60314941,20.000000
7447426.36608887,5477282.32324219,636.03894043,41.000000
7447425.49121094,5477281.73873901,635.59582520,12.000000
7447426.48120117,5477282.37173462,636.13714600,51.000000
7447425.70666504,5477281.95828247,635.59527588,11.000000
7447426.57763672,5477282.39660645,636.24182129,30.000000
7447426.00024414,5477282.26010132,635.59057617,12.000000
7447426.61853027,5477282.36367798,636.34808350,49.000000
7447424.87951660,5477281.10839844,635.60186768,20.000000
7447426.11230469,5477282.32009888,635.66296387,35.000000
7447424.96350098,5477281.19409180,635.60101318,23.000000
7447426.16442871,5477282.30813599,635.75573730,40.000000
7447425.05505371,5477281.28466797,635.60418701,14.000000
7447426.23559570,5477282.31698608,635.84625244,48.000000
7447425.17956543,5477281.41543579,635.59753418,16.000000
7447426.30676270,5477282.32382202,635.93969727,37.000000
7447425.31262207,5477281.54867554,635.59985352,22.000000
7447426.36682129,5477282.31686401,636.03674316,40.000000
7447425.48913574,5477281.73010254,635.59613037,12.000000
7447426.49047852,5477282.37390137,636.13452148,54.000000
7447425.70959473,5477281.95544434,635.59332275,11.000000
7447426.56445313,5477282.37600708,636.23883057,25.000000
7447425.99987793,5477282.25222778,635.58953857,12.000000
7447426.62084961,5477282.35867310,636.34545898,49.000000
7447424.87133789,5477281.09136963,635.60888672,20.000000
7447426.12207031,5477282.32424927,635.65887451,38.000000
7447424.95910645,5477281.18310547,635.60443115,23.000000
7447426.17443848,5477282.31219482,635.75195313,39.000000
7447425.05163574,5477281.27508545,635.60644531,13.000000
7447426.23120117,5477282.30459595,635.84515381,46.000000
7447425.17724609,5477281.40722656,635.59869385,17.000000
7447426.31433105,5477282.32473755,635.93676758,38.000000
7447425.31713867,5477281.54953003,635.59716797,18.000000
7447426.37731934,5477282.32058716,636.03381348,29.000000
7447425.47998047,5477281.71218872,635.59967041,12.000000
7447426.49829102,5477282.37454224,636.13189697,57.000000
7447425.71008301,5477281.94952393,635.59222412,11.000000
7447426.56530762,5477282.36950684,636.23620605,33.000000
7447425.98840332,5477282.23065186,635.59204102,12.000000
7447426.61877441,5477282.34945679,636.34252930,45.000000
7447424.87487793,5477281.09292603,635.60620117,20.000000
7447426.11669922,5477282.31024170,635.65893555,37.000000
7447424.96496582,5477281.18762207,635.60021973,23.000000
7447426.18688965,5477282.31927490,635.74768066,41.000000
7447425.05249023,5477281.27172852,635.60589600,13.000000
7447426.23999023,5477282.30709839,635.84185791,42.000000
7447425.17272949,5477281.39593506,635.60119629,18.000000
7447426.31652832,5477282.31976318,635.93457031,40.000000
7447425.31262207,5477281.53805542,635.59912109,19.000000
7447426.39318848,5477282.33013916,636.03057861,45.000000
7447425.47314453,5477281.69741821,635.60217285,12.000000
7447426.50195313,5477282.37094116,636.12945557,52.000000
7447425.70568848,5477281.93753052,635.59307861,11.000000
7447426.57324219,5477282.37008667,636.23382568,43.000000
7447425.99414063,5477282.23043823,635.58898926,13.000000
7447426.62109375,5477282.34442139,636.33996582,33.000000
7447424.87646484,5477281.09136963,635.60516357,20.000000
7447426.12512207,5477282.31286621,635.65515137,34.000000
7447424.95642090,5477281.17047119,635.60662842,24.000000
7447426.19177246,5477282.31729126,635.74499512,44.000000
7447425.05847168,5477281.27609253,635.60180664,13.000000
7447426.25268555,5477282.31399536,635.83795166,47.000000
7447425.17260742,5477281.39080811,635.60107422,18.000000
7447426.32141113,5477282.31771851,635.93194580,41.000000
7447425.31481934,5477281.53579712,635.59759521,18.000000
7447426.39404297,5477282.32366943,636.02832031,44.000000
7447425.48498535,5477281.70721436,635.59625244,13.000000
7447426.50561523,5477282.36727905,636.12689209,50.000000
7447425.69177246,5477281.91326904,635.59765625,11.000000
7447426.58264160,5477282.37203979,636.23138428,49.000000
7447425.99255371,5477282.22106934,635.58837891,12.000000
7447426.65075684,5477282.36563110,636.33911133,34.000000
7447424.88000488,5477281.09289551,635.60247803,20.000000
7447426.13366699,5477282.31546021,635.65142822,33.000000
7447424.96118164,5477281.17343140,635.60321045,25.000000
7447426.19519043,5477282.31384277,635.74261475,47.000000
7447425.06030273,5477281.27426147,635.60052490,14.000000
7447426.25354004,5477282.30758667,635.83599854,48.000000
7447425.17346191,5477281.38726807,635.60034180,18.000000
7447426.32226563,5477282.31127930,635.92987061,41.000000
7447425.30688477,5477281.51974487,635.60131836,16.000000
7447426.39758301,5477282.32012939,636.02587891,41.000000
7447425.48046875,5477281.69552612,635.59771729,12.000000
7447426.51489258,5477282.36935425,636.12426758,44.000000
7447425.69213867,5477281.90744019,635.59667969,11.000000
7447426.58630371,5477282.36837769,636.22888184,50.000000
7447425.98962402,5477282.21020508,635.58813477,13.000000
7447426.66162109,5477282.36886597,636.33703613,33.000000
7447424.87756348,5477281.08517456,635.60467529,21.000000
7447426.14343262,5477282.31954956,635.64733887,30.000000
7447424.96081543,5477281.16864014,635.60357666,25.000000
7447426.19738770,5477282.30886841,635.74047852,44.000000
7447425.04943848,5477281.25390625,635.60778809,13.000000
7447426.26635742,5477282.31442261,635.83203125,47.000000
7447425.17663574,5477281.38677979,635.59832764,17.000000
7447426.33251953,5477282.31506348,635.92663574,40.000000
7447425.30908203,5477281.51751709,635.59979248,18.000000
7447426.39843750,5477282.31369019,636.02362061,36.000000
7447425.47827148,5477281.68688965,635.59808350,12.000000
7447426.53125000,5477282.37847900,636.12145996,29.000000
7447425.69738770,5477281.90765381,635.59381104,11.000000
7447426.59423828,5477282.36886597,636.22644043,50.000000
7447425.98425293,5477282.19631958,635.58874512,13.000000
7447426.67260742,5477282.37200928,636.33489990,49.000000
7447424.87133789,5477281.07131958,635.61016846,21.000000
7447426.15197754,5477282.32208252,635.64361572,32.000000
7447424.96765137,5477281.17468262,635.59863281,25.000000
7447426.20727539,5477282.31286621,635.73669434,45.000000
7447425.05236816,5477281.25363159,635.60583496,12.000000
7447426.26452637,5477282.30502319,635.83056641,47.000000
7447425.17858887,5477281.38476563,635.59698486,17.000000
7447426.34558105,5477282.32174683,635.92309570,38.000000
7447425.31469727,5477281.51989746,635.59649658,19.000000
7447426.40747070,5477282.31588745,636.02081299,41.000000
7447425.46667480,5477281.66607666,635.60278320,12.000000
7447426.52502441,5477282.36486816,636.11920166,14.000000
7447425.70263672,5477281.90786743,635.59094238,11.000000
7447426.60791016,5477282.37496948,636.22412109,41.000000
7447425.97875977,5477282.18246460,635.58941650,13.000000
7447426.69653320,5477282.38757324,636.33361816,54.000000
7447424.87683105,5477281.07592773,635.60583496,21.000000
7447426.14916992,5477282.31109619,635.64294434,27.000000
7447424.96936035,5477281.17297363,635.59747314,26.000000
7447426.21862793,5477282.31826782,635.73260498,43.000000
7447425.05627441,5477281.25488281,635.60314941,12.000000
7447426.26940918,5477282.30297852,635.82794189,45.000000
7447425.16955566,5477281.36740112,635.60211182,18.000000
7447426.35461426,5477282.32400513,635.92004395,38.000000
7447425.31237793,5477281.51153564,635.59735107,19.000000
7447426.41796875,5477282.31948853,636.01782227,42.000000
7447425.47387695,5477281.66970825,635.59899902,13.000000
7447426.54418945,5477282.37677002,636.11627197,32.000000
7447425.69812012,5477281.89590454,635.59185791,11.000000
7447426.61877441,5477282.37823486,636.22167969,29.000000
7447425.97827148,5477282.17465210,635.58843994,13.000000
7447426.72351074,5477282.40576172,636.33245850,58.000000
7447424.87536621,5477281.06976318,635.60723877,22.000000
7447426.16015625,5477282.31661987,635.63848877,28.000000
7447424.96276855,5477281.15899658,635.60247803,25.000000
7447426.22729492,5477282.32073975,635.72906494,44.000000
7447425.05810547,5477281.25305176,635.60192871,12.000000
7447426.28881836,5477282.31710815,635.82281494,47.000000
7447425.17932129,5477281.37612915,635.59619141,18.000000
7447426.35534668,5477282.31753540,635.91790771,41.000000
7447425.31225586,5477281.50625610,635.59704590,18.000000
7447426.43115234,5477282.32595825,636.01470947,41.000000
7447425.47155762,5477281.66116333,635.59942627,12.000000
7447426.54357910,5477282.36883545,636.11389160,22.000000
7447425.69116211,5477281.88098145,635.59368896,11.000000
7447426.63818359,5477282.38983154,636.21942139,21.000000
7447425.97656250,5477282.16537476,635.58789063,12.000000
7447426.73156738,5477282.40606689,636.33013916,49.000000
7447424.88183594,5477281.07586670,635.60205078,21.000000
7447426.17395020,5477282.32507324,635.63330078,28.000000
7447424.96545410,5477281.15884399,635.60052490,25.000000
7447426.22558594,5477282.31124878,635.72784424,45.000000
7447425.05664063,5477281.24661255,635.60278320,13.000000
7447426.29101563,5477282.31207275,635.82067871,46.000000
7447425.17797852,5477281.36950684,635.59674072,17.000000
7447426.36022949,5477282.31536865,635.91534424,39.000000
7447425.30529785,5477281.49179077,635.60028076,18.000000
7447426.43200684,5477282.31945801,636.01245117,41.000000
7447425.47399902,5477281.65866089,635.59777832,12.000000
7447426.54724121,5477282.36508179,636.11132813,23.000000
7447425.68908691,5477281.87207031,635.59368896,11.000000
7447426.63623047,5477282.38046265,636.21673584,14.000000
7447425.97717285,5477282.15908813,635.58648682,12.000000
7447426.72814941,5477282.39535522,636.32708740,42.000000
7447424.88134766,5477281.07125854,635.60266113,21.000000
7447426.18371582,5477282.32904053,635.62915039,31.000000
7447424.96398926,5477281.15255737,635.60168457,25.000000
7447426.22900391,5477282.30773926,635.72546387,43.000000
7447425.05102539,5477281.23410034,635.60656738,11.000000
7447426.29589844,5477282.30999756,635.81805420,48.000000
7447425.18103027,5477281.36901855,635.59472656,18.000000
7447426.36645508,5477282.31469727,635.91259766,39.000000
7447425.31091309,5477281.49417114,635.59704590,16.000000
7447426.43969727,5477282.32015991,636.00970459,45.000000
7447425.47753906,5477281.65771484,635.59558105,13.000000
7447426.54663086,5477282.35714722,636.10894775,25.000000
7447425.69189453,5477281.86929321,635.59179688,10.000000
7447426.64709473,5477282.38366699,636.21429443,23.000000
7447425.96533203,5477282.13781738,635.58929443,11.000000
7447426.72607422,5477282.38607788,636.32421875,28.000000
7447424.87292480,5477281.05444336,635.60992432,22.000000
7447426.19238281,5477282.33145142,635.62536621,31.000000
7447424.96875000,5477281.15545654,635.59826660,25.000000
7447426.23779297,5477282.31008911,635.72186279,43.000000
7447425.05493164,5477281.23532104,635.60388184,13.000000
7447426.30200195,5477282.30935669,635.81512451,49.000000
7447425.18310547,5477281.36697388,635.59338379,16.000000
7447426.37683105,5477282.31832886,635.90930176,37.000000
7447425.30969238,5477281.48736572,635.59729004,15.000000
7447426.44470215,5477282.31793213,636.00714111,44.000000
7447425.47534180,5477281.64916992,635.59600830,14.000000
7447426.54882813,5477282.35198975,636.10650635,29.000000
7447425.69702148,5477281.86947632,635.58892822,10.000000
7447426.66955566,5477282.39791870,636.21197510,29.000000
7447425.95605469,5477282.11953735,635.59124756,11.000000
7447426.71520996,5477282.36856079,636.32080078,29.000000
7447424.87451172,5477281.05288696,635.60888672,22.000000
7447426.19067383,5477282.32192993,635.62438965,31.000000
7447424.97253418,5477281.15679932,635.59558105,25.000000
7447426.25170898,5477282.31835938,635.71716309,44.000000
7447425.05773926,5477281.23501587,635.60198975,14.000000
7447426.30554199,5477282.30578613,635.81274414,48.000000
7447425.17272949,5477281.34817505,635.59924316,16.000000
7447426.39135742,5477282.32629395,635.90551758,45.000000
7447425.31066895,5477281.48361206,635.59643555,12.000000
7447426.44824219,5477282.31430054,636.00469971,38.000000
7447425.46582031,5477281.63153076,635.59979248,15.000000
7447426.52551270,5477282.32153320,636.10485840,26.000000
7447425.69494629,5477281.86062622,635.58898926,9.000000
7447426.68481445,5477282.40518188,636.20959473,36.000000
7447425.96044922,5477282.11782837,635.58868408,11.000000
7447426.71740723,5477282.36340332,636.31817627,28.000000
7447424.88000488,5477281.05743408,635.60449219,20.000000
7447426.19677734,5477282.32135010,635.62127686,31.000000
7447424.96484375,5477281.14138794,635.60137939,25.000000
7447426.26184082,5477282.32214355,635.71325684,42.000000
7447425.05627441,5477281.22860718,635.60290527,14.000000
7447426.31701660,5477282.31094360,635.80895996,49.000000
7447425.16796875,5477281.33703613,635.60186768,16.000000
7447426.38391113,5477282.31109619,635.90441895,38.000000
7447425.31054688,5477281.47833252,635.59613037,12.000000
7447426.46154785,5477282.32061768,636.00146484,33.000000
7447425.47534180,5477281.63815308,635.59484863,15.000000
7447426.52917480,5477282.31781006,636.10241699,26.000000
7447425.68542480,5477281.84274292,635.59191895,9.000000
7447426.69140625,5477282.40408325,636.20703125,43.000000
7447425.96228027,5477282.11309814,635.58697510,13.000000
7447426.72558594,5477282.36364746,636.31585693,37.000000
7447424.88439941,5477281.06042480,635.60095215,19.000000
7447426.20788574,5477282.32669067,635.61676025,31.000000
7447424.96435547,5477281.13665771,635.60180664,25.000000
7447426.25866699,5477282.31121826,635.71234131,39.000000
7447425.06347656,5477281.23440552,635.59808350,14.000000
7447426.32458496,5477282.31173706,635.80584717,41.000000
7447425.17773438,5477281.34567261,635.59588623,14.000000
7447426.39428711,5477282.31466675,635.90118408,26.000000
7447425.30114746,5477281.46096802,635.60064697,10.000000
7447426.46643066,5477282.31835938,635.99890137,36.000000
7447425.47656250,5477281.63415527,635.59375000,18.000000
7447426.54125977,5477282.32254028,636.09967041,26.000000
7447425.68566895,5477281.83694458,635.59100342,9.000000
7447426.71533203,5477282.41958618,636.20465088,52.000000
7447425.95788574,5477282.10089111,635.58734131,15.000000
7447426.74682617,5477282.37612915,636.31420898,49.000000
7447424.88293457,5477281.05432129,635.60241699,20.000000
7447426.21789551,5477282.33050537,635.61254883,30.000000
7447424.96606445,5477281.13494873,635.60070801,25.000000
7447426.26879883,5477282.31494141,635.70843506,40.000000
7447425.05554199,5477281.21887207,635.60333252,14.000000
7447426.34423828,5477282.32556152,635.80053711,45.000000
7447425.18200684,5477281.34667969,635.59320068,13.000000
7447426.41027832,5477282.32394409,635.89715576,34.000000
7447425.30786133,5477281.46481323,635.59680176,11.000000
7447426.46728516,5477282.31182861,635.99670410,36.000000
7447425.47290039,5477281.62411499,635.59484863,18.000000
7447426.55200195,5477282.32580566,636.09692383,25.000000
7447425.69079590,5477281.83712769,635.58813477,9.000000
7447426.71484375,5477282.41149902,636.20202637,50.000000
7447425.94323730,5477282.07678223,635.59112549,13.000000
7447426.75500488,5477282.37631226,636.31182861,51.000000
7447424.87646484,5477281.04061890,635.60809326,19.000000
7447426.22521973,5477282.33135986,635.60906982,29.000000
7447424.96972656,5477281.13629150,635.59802246,24.000000
7447426.27746582,5477282.31723022,635.70483398,40.000000
7447425.05725098,5477281.21704102,635.60211182,15.000000
7447426.33557129,5477282.30883789,635.80029297,48.000000
7447425.17944336,5477281.33859253,635.59454346,16.000000
7447426.42614746,5477282.33322144,635.89312744,40.000000
7447425.30529785,5477281.45654297,635.59771729,10.000000
7447426.47912598,5477282.31665039,635.99353027,40.000000
7447425.47058105,5477281.61563110,635.59539795,18.000000
7447426.55688477,5477282.32348633,636.09436035,27.000000
7447425.68859863,5477281.82830811,635.58825684,9.000000
7447426.71423340,5477282.40347290,636.19940186,48.000000
7447425.94506836,5477282.07208252,635.58941650,12.000000
7447426.75573730,5477282.36975098,636.30914307,50.000000
7447424.87292480,5477281.03152466,635.61120605,17.000000
7447426.22607422,5477282.32476807,635.60736084,29.000000
7447424.97338867,5477281.13763428,635.59533691,22.000000
7447426.28759766,5477282.32089233,635.70092773,38.000000
7447425.05908203,5477281.21520996,635.60089111,15.000000
7447426.34313965,5477282.30953979,635.79718018,50.000000
7447425.16784668,5477281.31842041,635.60119629,15.000000
7447426.42285156,5477282.32232666,635.89154053,41.000000
7447425.30981445,5477281.45733643,635.59503174,9.000000
7447426.49401855,5477282.32427979,635.99017334,47.000000
7447425.47412109,5477281.61465454,635.59320068,18.000000
7447426.55480957,5477282.31411743,636.09210205,25.000000
7447425.69128418,5477281.82550049,635.58636475,10.000000
7447426.71215820,5477282.39404297,636.19677734,40.000000
7447425.94311523,5477282.06292725,635.58898926,11.000000
7447426.76538086,5477282.37124634,636.30682373,49.000000
7447424.87634277,5477281.03298950,635.60852051,16.000000
7447426.23205566,5477282.32409668,635.60424805,31.000000
7447424.96142578,5477281.11627197,635.60437012,20.000000
7447426.30041504,5477282.32751465,635.69641113,40.000000
7447425.06079102,5477281.21337891,635.59967041,15.000000
7447426.35888672,5477282.31893921,635.79260254,52.000000
7447425.17651367,5477281.32546997,635.59588623,15.000000
7447426.42077637,5477282.31289673,635.88983154,37.000000
7447425.30957031,5477281.45211792,635.59478760,9.000000
7447426.50036621,5477282.32336426,635.98748779,44.000000
7447425.46679688,5477281.60015869,635.59594727,17.000000
7447426.56701660,5477282.31875610,636.08929443,27.000000
7447425.67419434,5477281.79876709,635.59234619,9.000000
7447426.72167969,5477282.39566040,636.19421387,39.000000
7447425.94738770,5477282.06121826,635.58648682,13.000000
7447426.79553223,5477282.39166260,636.30554199,50.000000
7447424.88598633,5477281.04351807,635.60076904,15.000000
7447426.24206543,5477282.32781982,635.60003662,28.000000
7447424.96508789,5477281.11758423,635.60168457,19.000000
7447426.29455566,5477282.31359863,635.69610596,39.000000
7447425.05700684,5477281.20397949,635.60211182,14.000000
7447426.36779785,5477282.32101440,635.78918457,52.000000
7447425.17846680,5477281.32345581,635.59454346,14.000000
7447426.43676758,5477282.32205200,635.88574219,40.000000
7447425.30236816,5477281.43783569,635.59820557,9.000000
7447426.51098633,5477282.32666016,635.98443604,33.000000
7447425.46679688,5477281.59469604,635.59539795,16.000000
7447426.57775879,5477282.32192993,636.08654785,34.000000
7447425.67431641,5477281.79296875,635.59149170,9.000000
7447426.72094727,5477282.38760376,636.19158936,46.000000
7447425.94274902,5477282.04907227,635.58691406,12.000000
7447426.81115723,5477282.39846802,636.30352783,49.000000
7447424.88745117,5477281.04196167,635.59979248,14.000000
7447426.24548340,5477282.32418823,635.59765625,26.000000
7447424.97094727,5477281.12194824,635.59741211,18.000000
7447426.30468750,5477282.31726074,635.69219971,41.000000
7447425.05664063,5477281.19912720,635.60235596,14.000000
7447426.37536621,5477282.32165527,635.78601074,51.000000
7447425.18029785,5477281.32144165,635.59320068,14.000000
7447426.43750000,5477282.31549072,635.88366699,36.000000
7447425.30444336,5477281.43563843,635.59674072,10.000000
7447426.51452637,5477282.32290649,635.98193359,42.000000
7447425.47277832,5477281.59671021,635.59216309,15.000000
7447426.58276367,5477282.31954956,636.08398438,27.000000
7447425.67199707,5477281.78424072,635.59161377,10.000000
7447426.73193359,5477282.39053345,636.18908691,52.000000
7447425.93566895,5477282.03405762,635.58825684,13.000000
7447426.80895996,5477282.38912964,636.30065918,43.000000
7447424.87878418,5477281.02532959,635.60717773,15.000000
7447426.25805664,5477282.33078003,635.59265137,23.000000
7447424.97143555,5477281.11871338,635.59710693,15.000000
7447426.31213379,5477282.31793213,635.68884277,39.000000
7447425.05395508,5477281.19128418,635.60406494,14.000000
7447426.37609863,5477282.31506348,635.78405762,54.000000
7447425.17541504,5477281.31036377,635.59588623,14.000000
7447426.46044922,5477282.33169556,635.87866211,37.000000
7447425.30651855,5477281.43341064,635.59533691,9.000000
7447426.52368164,5477282.32476807,635.97900391,45.000000
7447425.46655273,5477281.58377075,635.59442139,16.000000
7447426.59643555,5477282.32546997,636.08111572,28.000000
7447425.67712402,5477281.78442383,635.58880615,10.000000
7447426.74450684,5477282.39477539,636.18652344,50.000000
7447425.92846680,5477282.01901245,635.58966064,11.000000
7447426.81274414,5477282.38513184,636.29803467,46.000000
7447424.87609863,5477281.01776123,635.60949707,18.000000
7447426.25244141,5477282.31683350,635.59283447,22.000000
7447424.97094727,5477281.11401367,635.59759521,17.000000
7447426.32360840,5477282.32296753,635.68457031,38.000000
7447425.05346680,5477281.18646240,635.60437012,13.000000
7447426.38366699,5477282.31567383,635.78088379,56.000000
7447425.16711426,5477281.29483032,635.60064697,12.000000
7447426.46813965,5477282.33221436,635.87567139,41.000000
7447425.30505371,5477281.42669678,635.59570313,8.000000
7447426.53430176,5477282.32800293,635.97589111,44.000000
7447425.46044922,5477281.57086182,635.59667969,14.000000
7447426.59558105,5477282.31750488,636.07879639,30.000000
7447425.67224121,5477281.77273560,635.58996582,11.000000
7447426.75109863,5477282.39355469,636.18389893,38.000000
7447425.93261719,5477282.01733398,635.58715820,11.000000
7447426.80603027,5477282.37179565,636.29498291,21.000000
7447424.88366699,5477281.02520752,635.60345459,15.000000
7447426.25585938,5477282.31314087,635.59045410,20.000000
7447424.96411133,5477281.10031128,635.60278320,17.000000
7447426.32849121,5477282.32067871,635.68182373,37.000000
7447425.06506348,5477281.19812012,635.59655762,14.000000
7447426.39672852,5477282.32199097,635.77673340,57.000000
7447425.17236328,5477281.29733276,635.59729004,14.000000
7447426.45776367,5477282.31420898,635.87506104,37.000000
7447425.30603027,5477281.42297363,635.59484863,9.000000
7447426.54357910,5477282.32980347,635.97290039,44.000000
7447425.46520996,5477281.57138062,635.59399414,15.000000
7447426.60351563,5477282.31781006,636.07611084,34.000000
7447425.66491699,5477281.75805664,635.59210205,10.000000
7447426.76501465,5477282.39907837,636.18133545,37.000000
7447425.92932129,5477282.00674438,635.58721924,11.000000
7447426.82910156,5477282.38519287,636.29321289,40.000000
7447424.88513184,5477281.02365112,635.60241699,18.000000
7447426.26184082,5477282.31240845,635.58728027,18.000000
7447424.96459961,5477281.09710693,635.60247803,19.000000
7447426.33190918,5477282.31698608,635.67944336,35.000000
7447425.05688477,5477281.18280029,635.60198975,14.000000
7447426.40576172,5477282.32397461,635.77325439,54.000000
7447425.17773438,5477281.29980469,635.59399414,12.000000
7447426.47106934,5477282.32037354,635.87127686,40.000000
7447425.29858398,5477281.40881348,635.59838867,10.000000
7447426.54711914,5477282.32598877,635.97045898,38.000000
7447425.46984863,5477281.57189941,635.59124756,15.000000
7447426.61865234,5477282.32504272,636.07312012,34.000000
7447425.65502930,5477281.74047852,635.59527588,10.000000
7447426.77319336,5477282.39916992,636.17877197,49.000000
7447425.92968750,5477282.00064087,635.58605957,11.000000
7447426.84619141,5477282.39321899,636.29119873,52.000000
7447424.88439941,5477281.01925659,635.60321045,18.000000
7447426.26501465,5477282.30908203,635.58514404,18.000000
7447424.96813965,5477281.09857178,635.59991455,21.000000
7447426.33105469,5477282.30926514,635.67816162,39.000000
7447425.05395508,5477281.17514038,635.60388184,13.000000
7447426.40612793,5477282.31771851,635.77154541,51.000000
7447425.17712402,5477281.29498291,635.59417725,12.000000
7447426.47424316,5477282.31695557,635.86907959,40.000000
7447425.29577637,5477281.40084839,635.59954834,12.000000
7447426.55175781,5477282.32391357,635.96807861,42.000000
7447425.46826172,5477281.56521606,635.59149170,17.000000
7447426.63061523,5477282.32980347,636.07049561,37.000000
7447425.66479492,5477281.74685669,635.59069824,9.000000
7447426.77062988,5477282.39010620,636.17639160,50.000000
7447425.91943359,5477281.98306274,635.58856201,11.000000
7447426.85839844,5477282.39758301,636.28918457,58.000000
7447424.87976074,5477281.00872803,635.60729980,18.000000
7447426.26843262,5477282.30538940,635.58276367,16.000000
7447424.97497559,5477281.10437012,635.59484863,21.000000
7447426.34252930,5477282.31423950,635.67388916,39.000000
7447425.05126953,5477281.16735840,635.60565186,14.000000
7447426.40820313,5477282.31253052,635.76940918,49.000000
7447425.17895508,5477281.29296875,635.59283447,12.000000
7447426.48474121,5477282.32022095,635.86566162,42.000000
7447425.30017090,5477281.40164185,635.59692383,13.000000
7447426.55957031,5477282.32427979,635.96520996,43.000000
7447425.46081543,5477281.55087280,635.59436035,16.000000
7447426.64135742,5477282.33282471,636.06762695,39.000000
7447425.66235352,5477281.73818970,635.59094238,9.000000
7447426.78320313,5477282.39425659,636.17382813,49.000000
7447425.91979980,5477281.97695923,635.58740234,11.000000
7447426.86364746,5477282.39486694,636.28662109,61.000000
7447424.87500000,5477280.99822998,635.61138916,18.000000
7447426.26123047,5477282.29000854,635.58337402,12.000000
7447424.97338867,5477281.09817505,635.59613037,21.000000
7447426.35546875,5477282.32055664,635.66925049,35.000000
7447425.05957031,5477281.17446899,635.60003662,14.000000
7447426.41589355,5477282.31301880,635.76617432,50.000000
7447425.17504883,5477281.28350830,635.59490967,14.000000
7447426.48681641,5477282.31497192,635.86340332,40.000000
7447425.29980469,5477281.39645386,635.59674072,13.000000
7447426.57177734,5477282.32876587,635.96191406,40.000000
7447425.46191406,5477281.54690552,635.59338379,14.000000
7447426.63342285,5477282.31793213,636.06567383,30.000000
7447425.66491699,5477281.73541260,635.58911133,9.000000
7447426.80017090,5477282.40237427,636.17114258,33.000000
7447425.91882324,5477281.96939087,635.58666992,11.000000
7447426.86743164,5477282.39077759,636.28399658,59.000000
7447424.88159180,5477281.00411987,635.60614014,20.000000
7447426.26733398,5477282.28924561,635.58026123,9.000000
7447424.96643066,5477281.08453369,635.60137939,19.000000
7447426.36425781,5477282.32257080,635.66552734,33.000000
7447425.06127930,5477281.17263794,635.59887695,14.000000
7447426.42480469,5477282.31494141,635.76275635,51.000000
7447425.16894531,5477281.27105713,635.59844971,17.000000
7447426.48620605,5477282.30694580,635.86151123,38.000000
7447425.29943848,5477281.39126587,635.59655762,11.000000
7447426.58386230,5477282.33325195,635.95867920,36.000000
7447425.46411133,5477281.54446411,635.59179688,14.000000
7447426.63256836,5477282.30993652,636.06341553,25.000000
7447425.65734863,5477281.72088623,635.59136963,10.000000
7447426.81567383,5477282.40914917,636.16851807,46.000000
7447425.92175293,5477281.96621704,635.58465576,10.000000
7447426.87866211,5477282.39337158,636.28167725,57.000000
7447424.88305664,5477281.00256348,635.60516357,22.000000
7447426.26806641,5477282.28259277,635.57861328,8.000000
7447424.96801758,5477281.08285522,635.60034180,19.000000
7447426.37048340,5477282.32162476,635.66247559,32.000000
7447425.05957031,5477281.16635132,635.59991455,15.000000
7447426.43249512,5477282.31539917,635.75952148,48.000000
7447425.17993164,5477281.28094482,635.59167480,20.000000
7447426.51074219,5477282.32421875,635.85614014,40.000000
7447425.29675293,5477281.38311768,635.59765625,9.000000
7447426.58459473,5477282.32656860,635.95642090,35.000000
7447425.46276855,5477281.53756714,635.59191895,12.000000
7447426.66528320,5477282.33340454,636.05950928,29.000000
7447425.65234375,5477281.70928955,635.59265137,9.000000
7447426.82385254,5477282.40905762,636.16583252,54.000000
7447425.91040039,5477281.94699097,635.58752441,11.000000
7447426.88989258,5477282.39587402,636.27935791,55.000000
7447424.88134766,5477280.99655151,635.60668945,22.000000
7447426.25415039,5477282.26007080,635.58123779,7.000000
7447424.97058105,5477281.08264160,635.59844971,17.000000
7447426.36840820,5477282.31210327,635.66131592,30.000000
7447425.05236816,5477281.15261841,635.60467529,14.000000
7447426.44006348,5477282.31585693,635.75628662,47.000000
7447425.17834473,5477281.27447510,635.59240723,20.000000
7447426.51428223,5477282.32037354,635.85363770,43.000000
7447425.30114746,5477281.38388062,635.59497070,10.000000
7447426.58813477,5477282.32269287,635.95391846,35.000000
7447425.46130371,5477281.53067017,635.59204102,14.000000
7447426.66296387,5477282.32400513,636.05725098,26.000000
7447425.65234375,5477281.70361328,635.59191895,11.000000
7447426.82751465,5477282.40499878,636.16326904,54.000000
7447425.90686035,5477281.93655396,635.58776855,11.000000
7447426.88610840,5477282.38516235,636.27642822,32.000000
7447424.87548828,5477280.98461914,635.61169434,22.000000
7447426.24829102,5477282.24624634,635.58160400,7.000000
7447424.97216797,5477281.08093262,635.59735107,16.000000
7447426.38281250,5477282.31973267,635.65631104,30.000000
7447425.05627441,5477281.15374756,635.60198975,15.000000
7447426.43945313,5477282.30773926,635.75463867,45.000000
7447425.17785645,5477281.26947021,635.59252930,20.000000
7447426.52905273,5477282.32769775,635.84960938,40.000000
7447425.29833984,5477281.37576294,635.59606934,10.000000
7447426.59448242,5477282.32153320,635.95117188,34.000000
7447425.45361328,5477281.51644897,635.59497070,14.000000
7447426.67236328,5477282.32553101,636.05444336,31.000000
7447425.65734863,5477281.70376587,635.58911133,11.000000
7447426.84313965,5477282.41159058,636.16052246,54.000000
7447425.90576172,5477281.92901611,635.58709717,10.000000
7447426.89587402,5477282.38632202,636.27404785,45.000000
7447424.87890625,5477280.98605347,635.60900879,21.000000
7447426.24230957,5477282.23248291,635.58197021,9.000000
7447424.97155762,5477281.07626343,635.59790039,15.000000
7447426.39160156,5477282.32165527,635.65258789,33.000000
7447425.05676270,5477281.15045166,635.60162354,14.000000
7447426.45678711,5477282.31808472,635.74957275,41.000000
7447425.17163086,5477281.25711060,635.59606934,19.000000
7447426.53820801,5477282.32940674,635.84631348,43.000000
7447425.30029297,5477281.37356567,635.59466553,11.000000
7447426.61096191,5477282.33007813,635.94744873,39.000000
7447425.44848633,5477281.50518799,635.59686279,15.000000
7447426.68322754,5477282.32839966,636.05157471,33.000000
7447425.64965820,5477281.68933105,635.59143066,11.000000
7447426.86462402,5477282.42358398,636.15777588,57.000000
7447425.90209961,5477281.91860962,635.58734131,10.000000
7447426.89355469,5477282.37692261,636.27124023,43.000000
7447424.88037109,5477280.98446655,635.60803223,20.000000
7447426.24560547,5477282.22879028,635.57965088,11.000000
7447424.96655273,5477281.06567383,635.60162354,15.000000
7447426.40063477,5477282.32351685,635.64886475,34.000000
7447425.06176758,5477281.15304565,635.59820557,14.000000
7447426.46582031,5477282.31985474,635.74603271,38.000000
7447425.16882324,5477281.24917603,635.59753418,19.000000
7447426.53759766,5477282.32128906,635.84442139,46.000000
7447425.30236816,5477281.37133789,635.59326172,11.000000
7447426.61315918,5477282.32470703,635.94506836,34.000000
7447425.45812988,5477281.51153564,635.59191895,14.000000
7447426.69274902,5477282.32983398,636.04870605,44.000000
7447425.64453125,5477281.67779541,635.59277344,11.000000
7447426.88623047,5477282.43548584,636.15496826,64.000000
7447425.90502930,5477281.91546631,635.58532715,9.000000
7447426.91381836,5477282.38726807,636.26916504,41.000000
7447424.89001465,5477280.99472046,635.60015869,20.000000
7447426.23950195,5477282.21505737,635.58007813,12.000000
7447424.96801758,5477281.06399536,635.60052490,16.000000
7447426.40405273,5477282.31967163,635.64642334,30.000000
7447425.06115723,5477281.14825439,635.59851074,14.000000
7447426.47766113,5477282.32446289,635.74200439,41.000000
7447425.17285156,5477281.25012207,635.59484863,18.000000
7447426.54248047,5477282.31878662,635.84173584,45.000000
7447425.29467773,5477281.35736084,635.59692383,10.000000
7447426.62243652,5477282.32629395,635.94201660,38.000000
7447425.45898438,5477281.50762939,635.59094238,13.000000
7447426.68603516,5477282.31634521,636.04675293,41.000000
7447425.64196777,5477281.66921997,635.59307861,9.000000
7447426.89294434,5477282.43395996,636.15228271,63.000000
7447425.90002441,5477281.90362549,635.58605957,10.000000
7447426.92956543,5477282.39361572,636.26690674,37.000000
7447424.88525391,5477280.98431396,635.60437012,20.000000
7447426.23889160,5477282.20706177,635.57891846,11.000000
7447424.96740723,5477281.05935669,635.60107422,15.000000
7447426.40747070,5477282.31579590,635.64398193,30.000000
7447425.06054688,5477281.14346313,635.59887695,15.000000
7447426.48107910,5477282.32052612,635.73956299,41.000000
7447425.17590332,5477281.24957275,635.59289551,20.000000
7447426.55444336,5477282.32318115,635.83807373,45.000000
7447425.29663086,5477281.35516357,635.59552002,9.000000
7447426.62597656,5477282.32229614,635.93951416,35.000000
7447425.45874023,5477281.50222778,635.59051514,12.000000
7447426.69982910,5477282.32183838,636.04370117,39.000000
7447425.64953613,5477281.67230225,635.58929443,9.000000
7447426.88635254,5477282.42037964,636.14971924,38.000000
7447425.89099121,5477281.88745117,635.58813477,10.000000
7447426.93627930,5477282.39205933,636.26434326,29.000000
7447424.87719727,5477280.96951294,635.61114502,19.000000
7447426.23132324,5477282.19195557,635.57977295,12.000000
7447424.97216797,5477281.06207275,635.59759521,14.000000
7447426.41638184,5477282.31762695,635.64019775,32.000000
7447425.06103516,5477281.14016724,635.59844971,14.000000
7447426.48742676,5477282.31945801,635.73657227,43.000000
7447425.17761230,5477281.24755859,635.59161377,21.000000
7447426.56372070,5477282.32482910,635.83477783,43.000000
7447425.29626465,5477281.35003662,635.59545898,9.000000
7447426.63232422,5477282.32107544,635.93676758,35.000000
7447425.45104980,5477281.48809814,635.59356689,12.000000
7447426.72692871,5477282.33950806,636.03991699,40.000000
7447425.65698242,5477281.67538452,635.58551025,10.000000
7447426.89147949,5477282.41751099,636.14709473,27.000000
7447425.89245605,5477281.88290405,635.58666992,11.000000
7447426.93395996,5477282.38262939,636.26153564,34.000000
7447424.88378906,5477280.97531128,635.60583496,19.000000
7447426.21594238,5477282.16821289,635.58294678,11.000000
7447424.97045898,5477281.05596924,635.59893799,16.000000
7447426.42810059,5477282.32220459,635.63574219,35.000000
7447425.06042480,5477281.13537598,635.59881592,14.000000
7447426.49084473,5477282.31552124,635.73406982,41.000000
7447425.17126465,5477281.23526001,635.59521484,24.000000
7447426.57434082,5477282.32778931,635.83123779,46.000000
7447425.30541992,5477281.35659790,635.59020996,10.000000
7447426.64611816,5477282.32666016,635.93322754,30.000000
7447425.45568848,5477281.48855591,635.59088135,12.000000
7447426.72021484,5477282.32595825,636.03790283,31.000000
7447425.64672852,5477281.65808105,635.58892822,9.000000
7447426.89233398,5477282.41061401,636.14447021,39.000000
7447425.88745117,5477281.87112427,635.58740234,11.000000
7447426.93017578,5477282.37185669,636.25866699,45.000000
7447424.88305664,5477280.97082520,635.60662842,19.000000
7447426.21911621,5477282.16461182,635.58068848,12.000000
7447424.96752930,5477281.04840088,635.60113525,17.000000
7447426.43701172,5477282.32400513,635.63201904,30.000000
7447425.06433105,5477281.13647461,635.59613037,14.000000
7447426.50134277,5477282.31860352,635.73028564,40.000000
7447425.17419434,5477281.23471069,635.59326172,21.000000
7447426.56494141,5477282.31134033,635.83062744,40.000000
7447425.29772949,5477281.34268188,635.59393311,11.000000
7447426.65246582,5477282.32540894,635.93041992,33.000000
7447425.45532227,5477281.48321533,635.59051514,12.000000
7447426.73120117,5477282.32870483,636.03497314,36.000000
7447425.64660645,5477281.65246582,635.58825684,11.000000
7447426.89147949,5477282.40240479,636.14190674,29.000000
